# .PCD v0.7 - Point Cloud Data file format
VERSION 0.7
FIELDS x y z rgb
SIZE 4 4 4 4
TYPE F F F U
COUNT 1 1 1 1
WIDTH 1130
HEIGHT 1
VIEWPOINT 0 0 0 1 0 0 0
POINTS 1130
DATA ascii
0.086341172 -0.013264672 3.881 4294901760
0.076889142 -0.0038213602 3.881 4294901760
0.08634118 -0.0038213602 3.881 4294901760
0.064700536 -0.022854261 3.9059999 4294901760
0.064700536 -0.013350118 3.9059999 4294901760
0.073156469 -0.014406133 3.9059999 4294901760
0.064700536 -0.0038459755 3.9059999 4294901760
0.071042486 -0.0038459755 3.9059999 4294901760
0.076889142 0.005621952 3.881 4294901760
0.08634118 0.005621952 3.881 4294901760
0.08634118 0.015065266 3.881 4294901760
0.08634118 0.024508577 3.881 4294901760
0.064700536 0.0056581665 3.9059999 4294901760
0.071042486 0.0056581665 3.9059999 4294901760
0.064700536 0.015162309 3.9059999 4294901760
0.07421346 0.015162309 3.9059999 4294901760
0.064700536 0.024666451 3.9059999 4294901760
0.07421346 0.024666451 3.9059999 4294901760
0.08634118 0.03395189 3.881 4294901760
0.08634118 0.043395206 3.881 4294901760
0.064700536 0.034170594 3.9059999 4294901760
0.07421346 0.034170594 3.9059999 4294901760
0.064700536 0.043674737 3.9059999 4294901760
0.07421346 0.043674737 3.9059999 4294901760
0.086341172 0.055986285 3.881 4294901760
0.08634118 0.065429598 3.881 4294901760
0.07478869 0.075922169 3.8809998 4294901760
0.086341172 0.074872911 3.881 4294901760
0.064700536 0.056346927 3.9059999 4294901760
0.07421346 0.056346923 3.9059999 4294901760
0.064700536 0.06585107 3.9059999 4294901760
0.07421346 0.06585107 3.9059999 4294901760
0.064700536 0.07218717 3.9059999 4294901760
0.071042486 0.07218717 3.9059999 4294901760
0.064286426 0.078020684 3.881 4294901760
0.064286426 0.084316224 3.881 4294901760
0.073738463 0.084316224 3.881 4294901760
0.08634118 0.084316224 3.881 4294901760
0.064286426 0.093759537 3.881 4294901760
0.073738463 0.093759529 3.881 4294901760
0.08634118 0.093759537 3.881 4294901760
0.085785002 0.10879304 3.8559999 4294901760
0.085785002 0.11504803 3.8559999 4294901760
0.085785002 0.12443051 3.8559999 4294901760
0.064286426 0.10635062 3.881 4294901760
0.073738463 0.10635062 3.881 4294901760
0.08634118 0.10320285 3.881 4294901760
0.064286426 0.11579393 3.881 4294901760
0.073738463 0.11579393 3.881 4294901760
0.064286426 0.12523724 3.881 4294901760
0.072688237 0.12418798 3.8809998 4294901760
0.07639385 0.12755801 3.8559999 4294901760
0.07639385 0.13381298 3.8559999 4294901760
0.085785002 0.13381298 3.8559999 4294901760
0.07639385 0.14319548 3.8559999 4294901760
0.085785002 0.14319548 3.8559999 4294901760
0.064286426 0.13468055 3.881 4294901760
0.070587784 0.13468055 3.881 4294901760
0.064286426 0.14412387 3.881 4294901760
0.070587784 0.14412387 3.881 4294901760
0.07639385 0.15570545 3.8559999 4294901760
0.085785002 0.15570545 3.8559999 4294901760
0.064286426 0.15671495 3.881 4294901760
0.070587784 0.15671495 3.881 4294901760
0.064286426 0.16615826 3.881 4294901760
0.073738463 0.16615826 3.881 4294901760
0.08634118 0.16615826 3.881 4294901760
0.076889142 0.17560157 3.881 4294901760
0.086341172 0.17560157 3.881 4294901760
0.064700536 0.17673273 3.9059999 4294901760
0.071042486 0.17673273 3.9059999 4294901760
0.064700536 0.18623687 3.9059999 4294901760
0.07421346 0.18623687 3.9059999 4294901760
0.083726384 0.18623687 3.9059999 4294901760
0.064700536 0.19574103 3.9059999 4294901760
0.07421346 0.19574103 3.9059999 4294901760
0.083726384 0.19574103 3.9059999 4294901760
0.083726384 0.20524517 3.9059999 4294901760
0.083726384 0.21474931 3.9059999 4294901760
0.065114647 0.20655882 3.931 4294901760
0.074688457 0.20655882 3.931 4294901760
0.065114647 0.21612379 3.931 4294901760
0.074688457 0.21612379 3.931 4294901760
0.065114647 0.22568876 3.931 4294901760
0.074688457 0.22568876 3.931 4294901760
0.084262267 0.22568876 3.931 4294901760
0.083726384 0.24959783 3.9059999 4294901760
0.065114647 0.23525372 3.931 4294901760
0.074688457 0.23525372 3.931 4294901760
0.084262267 0.23525372 3.931 4294901760
0.065114647 0.2448187 3.931 4294901760
0.074688457 0.2448187 3.931 4294901760
0.084262267 0.2448187 3.931 4294901760
0.065114647 0.25438368 3.931 4294901760
0.074688457 0.25438365 3.931 4294901760
0.083726384 0.25593391 3.9059999 4294901760
0.064700536 0.26860613 3.9059999 4294901760
0.07421346 0.26860613 3.9059999 4294901760
0.083726384 0.26543808 3.9059999 4294901760
0.064700536 0.27494219 3.9059999 4294901760
0.07421346 0.27494219 3.9059999 4294901760
0.083726384 0.27494219 3.9059999 4294901760
0.065114647 0.26394865 3.931 4294901760
0.074688457 0.26394865 3.931 4294901760
0.064700536 0.28444636 3.9059999 4294901760
0.07421346 0.28444633 3.9059999 4294901760
0.083726384 0.28444636 3.9059999 4294901760
0.064700536 0.2939505 3.9059999 4294901760
0.07421346 0.2939505 3.9059999 4294901760
0.083726384 0.2939505 3.9059999 4294901760
0.064700536 0.30345464 3.9059999 4294901760
0.07421346 0.30345464 3.9059999 4294901760
0.083726384 0.30345464 3.9059999 4294901760
0.064286426 0.31410348 3.881 4294901760
0.073738463 0.31410351 3.881 4294901760
0.086341172 0.31410351 3.881 4294901760
0.064286426 0.32669455 3.881 4294901760
0.073738463 0.32669455 3.881 4294901760
0.08634118 0.32669455 3.881 4294901760
0.064286426 0.33613789 3.881 4294901760
0.073738463 0.33613789 3.881 4294901760
0.08634118 0.33613789 3.881 4294901760
0.077384435 0.34463924 3.9059999 4294901760
0.083726384 0.34463924 3.9059999 4294901760
0.077384435 0.35097533 3.9059999 4278255360
0.083726384 0.35097533 3.9059999 4278255360
0.065114647 0.34684509 3.931 4294901760
0.071497187 0.34684509 3.931 4294901760
0.065114647 0.35322174 3.931 4278255360
0.074688457 0.35641009 3.931 4278255360
0.084262267 0.3595984 3.931 4278255360
0.065545321 0.3619768 3.957 4278255360
0.071970075 0.3619768 3.957 4278255360
0.078890122 0.37395281 3.9820001 4278255360
0.085355476 0.37395281 3.9820001 4278255360
0.066406667 0.37648839 4.0089998 4278255360
0.072915852 0.37648839 4.0089998 4278255360
0.07994014 0.38874811 4.0349998 4278255360
0.08649154 0.38874811 4.0349998 4278255360
0.073879823 0.39464396 4.0619998 4278255360
0.07994014 0.39529344 4.0349998 4278255360
0.08649154 0.39529344 4.0349998 4278255360
0.087070286 0.40452766 4.0619998 4278255360
0.06773182 0.40721661 4.0890002 4278255360
0.074370898 0.40721661 4.0890002 4278255360
0.081009977 0.40721661 4.0890002 4278255360
0.084906973 0.41668344 4.1170001 4278255360
0.084906973 0.42336181 4.1170001 4278255360
0.068659432 0.41951734 4.145 4278255360
0.07538943 0.41951734 4.145 4278255360
0.068659432 0.4262411 4.145 4278255360
0.07538943 0.4262411 4.145 4278255360
0.088849425 0.43296486 4.145 4278255360
0.069123231 0.4358896 4.1729999 4278255360
0.075898692 0.4358896 4.1729999 4278255360
0.082674153 0.4358896 4.1729999 4278255360
0.08606188 0.44604343 4.1729999 4278255360
0.089449614 0.4561972 4.1729999 4278255360
0.069603607 0.44573504 4.2020001 4278255360
0.076426148 0.44573504 4.2020001 4278255360
0.069603607 0.45255134 4.2020001 4278255360
0.076426148 0.45255134 4.2020001 4278255360
0.083248697 0.45936757 4.2020001 4278255360
0.073518783 0.46253785 4.2309999 4278255360
0.083772674 0.4704192 4.0619998 4278255360
0.087649055 0.46359664 4.0890002 4278255360
0.06773182 0.47354609 4.0890002 4278255360
0.074370898 0.47354609 4.0890002 4278255360
0.081564702 0.46343201 4.1170001 4278255360
0.081564702 0.47011039 4.1170001 4278255360
0.08548443 0.45986006 4.145 4278255360
0.07538943 0.46658382 4.145 4278255360
0.07538943 0.47330758 4.145 4278255360
0.069123231 0.46296641 4.1729999 4278255360
0.075898692 0.46296641 4.1729999 4278255360
0.065114647 0.48394305 3.931 4278255360
0.074688457 0.48394305 3.931 4278255360
0.084262267 0.48394305 3.931 4278255360
0.07839483 0.47751567 3.957 4278255360
0.084819593 0.47751567 3.957 4278255360
0.065959431 0.48053253 3.9820001 4278255360
0.072424784 0.48053253 3.9820001 4278255360
0.079425037 0.47403604 4.0089998 4278255360
0.085934222 0.47403604 4.0089998 4278255360
0.066837341 0.47383767 4.0349998 4278255360
0.07338874 0.47383767 4.0349998 4278255360
0.066837341 0.48038304 4.0349998 4278255360
0.07338874 0.48038304 4.0349998 4278255360
0.07639385 0.4966023 3.8559999 4278255360
0.085785002 0.4966023 3.8559999 4278255360
0.076889142 0.48723087 3.881 4278255360
0.08634118 0.48723087 3.881 4278255360
0.064286426 0.49982199 3.881 4278255360
0.073738463 0.49667421 3.881 4278255360
0.08634118 0.49352643 3.881 4278255360
0.064700536 0.49353746 3.9059999 4278255360
0.071042486 0.49353746 3.9059999 4278255360
0.063872315 0.50598478 3.8559999 4278255360
0.073263466 0.50598478 3.8559999 4278255360
0.082654618 0.50598478 3.8559999 4278255360
0.063872315 0.51536727 3.8559999 4278255360
0.073263466 0.51536727 3.8559999 4278255360
0.082654618 0.51536727 3.8559999 4278255360
0.063872315 0.52474976 3.8559999 4278255360
0.073263466 0.52474976 3.8559999 4278255360
0.085785002 0.52474976 3.8559999 4278255360
0.063474774 0.53391576 3.832 4278255360
0.066585675 0.54323983 3.832 4278255360
0.075918376 0.54323983 3.832 4278255360
0.085251071 0.54323983 3.832 4278255360
0.073263466 0.53413218 3.8559999 4278255360
0.085785002 0.53413218 3.8559999 4278255360
0.073263466 0.54038721 3.8559999 4278255360
0.085785002 0.54038721 3.8559999 4278255360
0.065768987 0.56420612 3.7850001 4278255360
0.074987225 0.56420612 3.7850001 4278255360
0.084205456 0.56420612 3.7850001 4278255360
0.066168644 0.54601467 3.8080001 4278255360
0.075442895 0.54601467 3.8080001 4278255360
0.08471714 0.54601467 3.8080001 4278255360
0.066168644 0.55528033 3.8080001 4278255360
0.075442895 0.55528033 3.8080001 4278255360
0.08471714 0.55528033 3.8080001 4278255360
0.065351963 0.56977993 3.7609999 4278255360
0.074511737 0.56977993 3.7609999 4278255360
0.065351963 0.57588077 3.7609999 4278255360
0.074511737 0.57588077 3.7609999 4278255360
0.083671525 0.57588077 3.7609999 4278255360
0.065351963 0.58198166 3.7609999 4278255360
0.074511737 0.58198166 3.7609999 4278255360
0.083671525 0.58198166 3.7609999 4278255360
0.084205456 0.57341582 3.7850001 4278255360
0.06455265 0.59595549 3.7149999 4278255360
0.076616317 0.59896863 3.7149999 4278255360
0.064952306 0.58448619 3.7379999 4278255360
0.074056074 0.58448619 3.7379999 4278255360
0.083159834 0.58448619 3.7379999 4278255360
0.064952306 0.59054977 3.7379999 4278255360
0.074056074 0.59358156 3.7379999 4278255360
0.083159834 0.59358156 3.7379999 4278255360
0.064170383 0.60740274 3.6930001 4278255360
0.073164545 0.60740274 3.6930001 4278255360
0.064170383 0.61638868 3.6930001 4278255360
0.076162606 0.61638868 3.6930001 4278255360
0.06455265 0.60499489 3.7149999 4278255360
0.076616317 0.60499489 3.7149999 4278255360
0.079632238 0.61102116 3.7149999 4278255360
0.063023552 0.6347903 3.6270001 4278255360
0.063405827 0.62976187 3.6489999 4278255360
0.07525517 0.63568109 3.6489999 4278255360
0.063788101 0.62462646 3.671 4278255360
0.075708881 0.63355881 3.671 4278255360
0.076162606 0.6253745 3.6930001 4278255360
0.076162606 0.63136506 3.6930001 4278255360
0.064803988 0.6380384 3.563 4278255360
0.064803988 0.64381814 3.563 4278255360
0.073914647 0.64470589 3.5840001 4278255360
0.065567888 0.63971168 3.605 4278255360
0.074347734 0.63971168 3.605 4278255360
0.07525517 0.64160031 3.6489999 4278255360
0.062966995 0.64803129 3.4619999 4278255360
0.068984285 0.65459919 3.4820001 4278255360
0.074637815 0.65459919 3.4820001 4278255360
0.058008522 0.64983797 3.5020001 4278255360
0.063694522 0.64983797 3.5020001 4278255360
0.069776751 0.65354919 3.5220001 4278255360
0.075495221 0.65354919 3.5220001 4278255360
0.058671102 0.64576918 3.5420001 4278255360
0.064422041 0.64576918 3.5420001 4278255360
0.073048458 0.64576918 3.5420001 4278255360
0.058671102 0.65151477 3.5420001 4278255360
0.064422041 0.65151477 3.5420001 4278255360
0.073048458 0.65151477 3.5420001 4278255360
0.064675532 0.65650088 3.404 4278255360
0.075729296 0.65650088 3.404 4278255360
0.057014655 0.65545446 3.4419999 4278255360
0.065397523 0.65545446 3.4419999 4278255360
0.076574683 0.65545446 3.4419999 4278255360
0.062966995 0.65364718 3.4619999 4278255360
0.057237264 0.65933108 3.2939999 4278255360
0.065259688 0.65933108 3.2939999 4278255360
0.0732821 0.65933108 3.2939999 4278255360
0.055159442 0.65573347 3.3299999 4278255360
0.063269541 0.65573347 3.3299999 4278255360
0.074083 0.65573347 3.3299999 4278255360
0.055159442 0.6611352 3.3299999 4278255360
0.063269541 0.6611352 3.3299999 4278255360
0.074083 0.6611352 3.3299999 4278255360
0.061220944 0.65736234 3.3659999 4278255360
0.067062549 0.66107297 3.385 4278255360
0.075306594 0.66107297 3.385 4278255360
0.05894744 0.66712338 3.2409999 4278255360
0.066840783 0.66712338 3.2409999 4278255360
0.053966809 0.66798013 3.2579999 4278255360
0.053966809 0.6732651 3.2579999 4278255360
0.056924492 0.6663565 3.276 4278255360
0.06490308 0.6663565 3.276 4278255360
0.072881654 0.6663565 3.276 4278255360
0.057237264 0.66467446 3.2939999 4278255360
0.065259688 0.66467446 3.2939999 4278255360
0.0732821 0.66467446 3.2939999 4278255360
0.055134743 0.67628813 3.1730001 4278255360
0.065438382 0.67628813 3.1730001 4278255360
0.055725534 0.67573154 3.207 4278255360
0.066139579 0.67573154 3.207 4278255360
0.05602093 0.67146885 3.224 4278255360
0.066490173 0.67146885 3.224 4278255360
0.054856725 0.68568075 3.1570001 4278255360
0.065108404 0.68568075 3.1570001 4278255360
0.054856725 0.69336236 3.1570001 4278255360
0.065108404 0.69336236 3.1570001 4278255360
0.055134743 0.68143523 3.1730001 4278255360
0.065438382 0.68143523 3.1730001 4278255360
0.054022662 0.70299327 3.109 4278255360
0.064118475 0.70299327 3.109 4278255360
0.054300684 0.6964727 3.125 4278255360
0.064448453 0.6964727 3.125 4278255360
0.054300684 0.7015419 3.125 4278255360
0.064448453 0.7015419 3.125 4278255360
0.054578707 0.69494349 3.141 4278255360
0.064778425 0.69494349 3.141 4278255360
0.050720189 0.70726687 3.062 4278255360
0.050720189 0.71223384 3.062 4278255360
0.0559646 0.71322721 3.0769999 4278255360
0.063458525 0.71322727 3.0769999 4278255360
0.053744648 0.70690131 3.0929999 4278255360
0.063788496 0.70690131 3.0929999 4278255360
0.054327678 0.71416992 2.987 4278255360
0.059474677 0.71775633 3.0020001 4278255360
0.066785939 0.71775633 3.0020001 4278255360
0.057303585 0.71376503 3.016 4278255360
0.064648941 0.71376503 3.016 4278255360
0.05266732 0.70993978 3.0309999 4278255360
0.062839821 0.71368742 3.0469999 4278255360
0.053272773 0.71693194 2.9289999 4278255360
0.058325596 0.7182157 2.944 4278255360
0.063105606 0.7182157 2.944 4278255360
0.058325596 0.72299129 2.944 4278255360
0.063105606 0.72299129 2.944 4278255360
0.053800222 0.71443367 2.9579999 4278255360
0.058880325 0.71540451 2.9719999 4278255360
0.063705787 0.71540451 2.9719999 4278255360
0.058880325 0.72022551 2.9719999 4278255360
0.063705787 0.72022551 2.9719999 4278255360
0.051544912 0.71436602 2.8340001 4278255360
0.056403864 0.71764284 2.8469999 4278255360
0.063337632 0.71764284 2.8469999 4278255360
0.054605607 0.71745569 2.8740001 4278255360
0.063938305 0.71745569 2.8740001 4278255360
0.052763507 0.7171371 2.901 4278255360
0.057751056 0.72059798 2.915 4278255360
0.064850435 0.72059798 2.915 4278255360
0.055116106 0.72382236 2.7820003 4278255360
0.053351615 0.72375458 2.8080001 4278255360
0.053598613 0.71566516 2.8210001 4278255360
0.053598613 0.72024119 2.8210001 4278255360
0.045469269 0.72755402 2.7449999 4278255360
0.056611516 0.72755402 2.7449999 4278255360
0.054620814 0.7240262 2.757 4278255360
0.044856388 0.73751473 2.7079999 4278255360
0.053650036 0.73751473 2.7079999 4278255360
0.045055162 0.73416454 2.72 4278255360
0.056831986 0.73563528 2.72 4278255360
0.049689729 0.72854018 2.7320001 4278255360
0.056343421 0.72854018 2.7320001 4278255360
0.049689729 0.73297185 2.7320001 4278255360
0.056343421 0.73297185 2.7320001 4278255360
0.044657618 0.7495532 2.6960001 4278255360
0.055600971 0.7495532 2.6960001 4278255360
0.044856388 0.74630028 2.7079999 4278255360
0.055848449 0.74630022 2.7079999 4278255360
0.058304086 0.74298906 2.72 4278255360
0.043879088 0.75582278 2.6489999 4278255360
0.048398379 0.75708842 2.661 4278255360
0.054879151 0.75708842 2.661 4278255360
0.046429254 0.75588363 2.6719999 4278255360
0.055106003 0.75588363 2.6719999 4278255360
0.044458847 0.7527476 2.684 4278255360
0.055353489 0.75274765 2.684 4278255360
0.043315899 0.76096845 2.615 4278255360
0.047761794 0.76416945 2.6259999 4278255360
0.054157324 0.76416945 2.6259999 4278255360
0.045838468 0.759103 2.638 4278255360
0.05440481 0.759103 2.638 4278255360
0.045838468 0.76338226 2.638 4278255360
0.05440481 0.76338226 2.638 4278255360
0.048398379 0.76140493 2.661 4278255360
0.054879151 0.76140493 2.661 4278255360
0.044674262 0.76693183 2.5710001 4278255360
0.053023033 0.76693189 2.5710001 4278255360
0.0448654 0.76393056 2.582 4278255360
0.055346012 0.76602471 2.582 4278255360
0.05768685 0.76718503 2.5929999 4278255360
0.045247678 0.76410353 2.6040001 4278255360
0.05370361 0.76410353 2.6040001 4278255360
0.044118222 0.76768273 2.539 4278255360
0.054424297 0.76768273 2.539 4278255360
0.044118222 0.77180135 2.539 4278255360
0.054424297 0.77180129 2.539 4278255360
0.042222653 0.76657146 2.549 4278255360
0.046561383 0.76987946 2.5599999 4278255360
0.054874435 0.76987952 2.5599999 4278255360
0.049469773 0.77726144 2.497 4278255360
0.055551127 0.77726144 2.497 4278255360
0.043562181 0.77834088 2.507 4278255360
0.045797486 0.77767152 2.5179999 4278255360
0.056018315 0.77767146 2.5179999 4278255360
0.043927085 0.77460879 2.5280001 4278255360
0.054188509 0.77460879 2.5280001 4278255360
0.044869896 0.7779277 2.467 4278255360
0.054883711 0.7779277 2.467 4278255360
0.044869896 0.78192955 2.467 4278255360
0.054883711 0.78192955 2.467 4278255360
0.045233656 0.78020018 2.487 4278255360
0.053309657 0.78020012 2.487 4278255360
0.043562181 0.78240758 2.507 4278255360
0.045580667 0.77788836 2.3989999 4278255360
0.044160563 0.78138393 2.428 4278255360
0.054016076 0.78138393 2.428 4278255360
0.046492662 0.77955985 2.447 4278255360
0.05443877 0.77955985 2.447 4278255360
0.046492662 0.78352922 2.447 4278255360
0.05443877 0.78352922 2.447 4278255360
0.040698726 0.78473842 2.457 4278255360
0.044706672 0.77442336 2.3529999 4278255360
0.052347533 0.77442336 2.3529999 4278255360
0.045219675 0.77751863 2.3800001 4278255360
0.051016081 0.77751863 2.3800001 4278255360
0.04706284 0.76771355 2.2820001 4278255360
0.041668799 0.77259946 2.2909999 4278255360
0.045725364 0.77271658 2.3080001 4278255360
0.047970273 0.77308333 2.326 4278255360
0.042469073 0.77607465 2.335 4278255360
0.044536661 0.76721495 2.2479999 4278255360
0.044536665 0.77086145 2.2479999 4278255360
0.044873465 0.76934272 2.2650001 4278255360
0.04706284 0.77141529 2.2820001 4278255360
0.042103693 0.77606446 2.2160001 4278255360
0.044061184 0.76984698 2.224 4278255360
0.044061184 0.77345461 2.224 4278255360
0.044219684 0.76899558 2.2320001 4278255360
0.036309157 0.77654868 2.1919999 4278255360
0.045206722 0.77654868 2.1919999 4278255360
0.036309157 0.78010446 2.1919999 4278255360
0.045206722 0.78010446 2.1919999 4278255360
0.045083102 0.77479362 2.2031999 4278255360
0.03566315 0.78194112 2.1530001 4278255360
0.035911616 0.77859682 2.168 4278255360
0.035911616 0.78211361 2.168 4278255360
0.046375543 0.78569394 2.1633334 4278255360
0.036044132 0.77794009 2.1760001 4278255360
0.044876751 0.78323483 2.1760001 4278255360
0.045041732 0.78080016 2.184 4278255360
0.046204004 0.78553486 2.1322856 4278255360
0.039013345 0.78425479 2.145 4278255360
0.04423742 0.78425479 2.145 4278255360
0.034879103 0.78694838 2.1056666 4278255360
0.043329984 0.78861624 2.1010001 4278255360
0.046464693 0.79307765 2.1038001 4278255360
0.045357149 0.78738165 2.1159999 4278255360
0.045357149 0.7908141 2.1159999 4278255360
0.038613208 0.78654253 2.1229999 4278255360
0.043783702 0.78654253 2.1229999 4278255360
0.034531251 0.79600817 2.0846665 4278255360
0.03468585 0.79278237 2.0940001 4278255360
0.044460587 0.79660374 2.0940001 4278255360
0.0348018 0.79202443 2.1010001 4278255360
0.034205481 0.8019014 2.0650001 4278255360
0.034321435 0.79789758 2.072 4278255360
0.034321431 0.80125862 2.072 4278255360
0.044649895 0.80378646 2.0829165 4278255360
0.2210093 -0.73944491 7.9130001 4294901760
0.2210093 -0.72660893 7.9130001 4294901760
0.17692497 -0.61168939 7.1680002 4294901760
0.18856324 -0.61168939 7.1680002 4294901760
0.20020151 -0.61168939 7.1680002 4294901760
0.16726977 -0.61902827 7.2540002 4294901760
0.1834165 -0.64618695 7.4310002 4294901760
0.19548179 -0.64618695 7.4310002 4294901760
0.20754707 -0.64618695 7.4310002 4294901760
0.17344956 -0.65410012 7.5219998 4294901760
0.21271411 -0.68698269 7.6160002 4294901760
0.21271411 -0.67462844 7.6160002 4294901760
0.17785382 -0.69573236 7.7129998 4294901760
0.19037698 -0.69573236 7.7129998 4294901760
0.20290014 -0.69573236 7.7129998 4294901760
0.17785382 -0.68322074 7.7129998 4294901760
0.19037698 -0.68322074 7.7129998 4294901760
0.20290014 -0.68322074 7.7129998 4294901760
0.18908541 -0.54477984 6.77 4294901760
0.18908541 -0.53379798 6.77 4294901760
0.15786171 -0.55089557 6.8460002 4294901760
0.16897717 -0.55089557 6.8460002 4294901760
0.18009263 -0.55089557 6.8460002 4294901760
0.15786171 -0.53979033 6.8460002 4294901760
0.16897717 -0.53979033 6.8460002 4294901760
0.18009263 -0.53979033 6.8460002 4294901760
0.16150503 -0.57497126 7.0040002 4294901760
0.17287703 -0.57497126 7.0040002 4294901760
0.18424901 -0.57497126 7.0040002 4294901760
0.19562101 -0.57497126 7.0040002 4294901760
0.17692497 -0.60006183 7.1680002 4294901760
0.18856324 -0.60006183 7.1680002 4294901760
0.20020151 -0.60006183 7.1680002 4294901760
0.16726977 -0.60726124 7.2540002 4294901760
0.1433576 -0.44985574 6.217 4294901760
0.15505618 -0.45455906 6.2820001 4294901760
0.16525589 -0.45455906 6.2820001 4294901760
0.17545563 -0.45455906 6.2820001 4294901760
0.14790022 -0.4745149 6.414 4294901760
0.14946823 -0.49006036 6.4819999 4294901760
0.15999269 -0.49006036 6.4819999 4294901760
0.17051713 -0.49006036 6.4819999 4294901760
0.1810416 -0.49006036 6.4819999 4294901760
0.15999269 -0.47954562 6.4819999 4294901760
0.17051713 -0.47954562 6.4819999 4294901760
0.1810416 -0.47954562 6.4819999 4294901760
0.15271956 -0.51146394 6.6230001 4294901760
0.16347295 -0.51146394 6.6230001 4294901760
0.17422634 -0.51146394 6.6230001 4294901760
0.18497971 -0.51146394 6.6230001 4294901760
0.13641685 -0.39928588 5.9159999 4294901760
0.14602233 -0.39928588 5.9159999 4294901760
0.1556278 -0.39928588 5.9159999 4294901760
0.16523327 -0.39928588 5.9159999 4294901760
0.13641685 -0.38968927 5.9159999 4294901760
0.14602233 -0.38968927 5.9159999 4294901760
0.1556278 -0.38968927 5.9159999 4294901760
0.16523327 -0.38968927 5.9159999 4294901760
0.1404983 -0.42111576 6.0929999 4294901760
0.15039116 -0.42111576 6.0929999 4294901760
0.16028401 -0.42111576 6.0929999 4294901760
0.17017686 -0.42111576 6.0929999 4294901760
0.1433576 -0.43977088 6.217 4294901760
0.15505618 -0.44436878 6.2820001 4294901760
0.16525589 -0.44436878 6.2820001 4294901760
0.17545563 -0.44436878 6.2820001 4294901760
0.13937053 -0.31460488 5.2979999 4294901760
0.1479726 -0.31460488 5.2979999 4294901760
0.12325019 -0.31739584 5.3449998 4294901760
0.13192855 -0.31739584 5.3449998 4294901760
0.12772363 -0.34688604 5.539 4294901760
0.13671699 -0.34688604 5.539 4294901760
0.14571035 -0.34688604 5.539 4294901760
0.15470371 -0.34688604 5.539 4294901760
0.12772363 -0.33790097 5.539 4294901760
0.13671699 -0.33790097 5.539 4294901760
0.14571035 -0.33790097 5.539 4294901760
0.15470371 -0.33790097 5.539 4294901760
0.13129777 -0.36582956 5.6939998 4294901760
0.14516529 -0.36582956 5.6939998 4294901760
0.15903282 -0.36582956 5.6939998 4294901760
0.13542768 -0.27224985 4.994 4294901760
0.13542768 -0.26414886 4.994 4294901760
0.11612497 -0.27453947 5.0359998 4294901760
0.12430163 -0.27453947 5.0359998 4294901760
0.11612497 -0.26637039 5.0359998 4294901760
0.12430163 -0.26637039 5.0359998 4294901760
0.14300108 -0.28742418 5.1199999 4294901760
0.11907651 -0.28989422 5.164 4294901760
0.127461 -0.28989422 5.164 4294901760
0.1358455 -0.28989422 5.164 4294901760
0.13937053 -0.30601078 5.2979999 4294901760
0.1479726 -0.30601078 5.2979999 4294901760
0.12325019 -0.30872548 5.3449998 4294901760
0.13192855 -0.30872548 5.3449998 4294901760
0.10724726 -0.21582812 4.651 4294901760
0.11479883 -0.21582812 4.651 4294901760
0.12612617 -0.21582812 4.651 4294901760
0.11748924 -0.23632905 4.7600002 4294901760
0.12521778 -0.23632905 4.7600002 4294901760
0.13294633 -0.23632905 4.7600002 4294901760
0.11748924 -0.22860765 4.7600002 4294901760
0.12521778 -0.22860765 4.7600002 4294901760
0.13294633 -0.22860765 4.7600002 4294901760
0.11238942 -0.24989535 4.8740001 4294901760
0.12425987 -0.24989535 4.8740001 4294901760
0.13613032 -0.24989535 4.8740001 4294901760
0.11421506 -0.1860913 4.48 4294901760
0.12512594 -0.1860913 4.48 4294901760
0.11421506 -0.1788241 4.48 4294901760
0.12512594 -0.1788241 4.48 4294901760
0.10406513 -0.1838017 4.513 4294901760
0.11592318 -0.19625024 4.5469999 4294901760
0.12699725 -0.19625024 4.5469999 4294901760
0.10563314 -0.1977177 4.5809999 4294901760
0.10724726 -0.20828353 4.651 4294901760
0.11479883 -0.20828353 4.651 4294901760
0.12612617 -0.20828353 4.651 4294901760
0.1059131 -0.14343747 4.2909999 4294901760
0.11636366 -0.14343747 4.2909999 4294901760
0.10388568 -0.15606591 4.3520002 4294901760
0.11448483 -0.15606591 4.3520002 4294901760
0.12508397 -0.15606591 4.3520002 4294901760
0.10538954 -0.16906779 4.415 4294901760
0.11614212 -0.16906779 4.415 4294901760
0.12331049 -0.16906779 4.415 4294901760
0.095579423 -0.1150238 4.145 4294901760
0.10230943 -0.1150238 4.145 4294901760
0.109776 -0.1158008 4.1729999 4294901760
0.11655147 -0.1158008 4.1729999 4294901760
0.10371634 -0.13364618 4.2020001 4294901760
0.10371634 -0.12682992 4.2020001 4294901760
0.11473659 -0.13456853 4.2309999 4294901760
0.11473659 -0.12770525 4.2309999 4294901760
0.095697999 -0.081985503 4.0089998 4294901760
0.10546177 -0.081985503 4.0089998 4294901760
0.11597283 -0.082517207 4.0349998 4294901760
0.093665525 -0.096247673 4.0619998 4294901760
0.10355839 -0.096247673 4.0619998 4294901760
0.11345124 -0.096247673 4.0619998 4294901760
0.093665525 -0.089658521 4.0619998 4294901760
0.10355839 -0.089658521 4.0619998 4294901760
0.11345124 -0.089658521 4.0619998 4294901760
0.094933778 -0.10422925 4.1170001 4294901760
0.10496059 -0.10422925 4.1170001 4294901760
0.11498739 -0.10422925 4.1170001 4294901760
0.093836077 -0.061260428 3.931 4294901760
0.10660116 -0.061260428 3.931 4294901760
0.093836077 -0.054883778 3.931 4294901760
0.10660116 -0.054883778 3.931 4294901760
0.095053494 -0.074973971 3.9820001 4294901760
0.10475151 -0.074973971 3.9820001 4294901760
0.11444953 -0.074973971 3.9820001 4294901760
0.095053494 -0.068514585 3.9820001 4294901760
0.10475151 -0.068514585 3.9820001 4294901760
0.11444953 -0.068514585 3.9820001 4294901760
0.095793217 -0.025855754 3.881 4294901760
0.10524526 -0.025855754 3.881 4294901760
0.093239307 -0.045030594 3.9059999 4294901760
0.10486621 -0.043974578 3.9059999 4294901760
0.093239307 -0.035526451 3.9059999 4294901760
0.10592321 -0.035526451 3.9059999 4294901760
0.090068333 -0.029190356 3.9059999 4294901760
0.10979243 -0.048507132 3.931 4294901760
0.10769768 -0.0037967439 3.8559999 4294901760
0.095793217 -0.013264672 3.881 4294901760
0.10524525 -0.013264673 3.881 4294901760
0.095793217 -0.0038213602 3.881 4294901760
0.10209458 -0.0038213602 3.881 4294901760
0.10769768 0.0055857375 3.8559999 4294901760
0.10769768 0.014968219 3.8559999 4294901760
0.10769768 0.024350703 3.8559999 4294901760
0.095793217 0.005621952 3.881 4294901760
0.10209458 0.005621952 3.881 4294901760
0.095793217 0.015065266 3.881 4294901760
0.10209458 0.015065266 3.881 4294901760
0.095793217 0.024508577 3.881 4294901760
0.10209458 0.024508577 3.881 4294901760
0.10769768 0.036860678 3.8559999 4294901760
0.10769768 0.046243161 3.8559999 4294901760
0.095793217 0.03395189 3.881 4294901760
0.10209458 0.03395189 3.881 4294901760
0.095793217 0.043395203 3.881 4294901760
0.10209458 0.043395203 3.881 4294901760
0.095793217 0.055986285 3.881 4294901760
0.10524525 0.055986281 3.881 4294901760
0.095793217 0.065429598 3.881 4294901760
0.10524525 0.065429598 3.881 4294901760
0.095793217 0.074872911 3.881 4294901760
0.10524526 0.074872911 3.881 4294901760
0.10769768 0.093155563 3.8559999 4294901760
0.095793217 0.084316224 3.881 4294901760
0.10524525 0.084316224 3.881 4294901760
0.095793217 0.093759537 3.881 4294901760
0.10209458 0.093759537 3.881 4294901760
0.095176153 0.10879304 3.8559999 4294901760
0.10561077 0.10670804 3.8559999 4294901760
0.095176153 0.11504803 3.8559999 4294901760
0.1045673 0.11504803 3.8559999 4294901760
0.095176153 0.12443051 3.8559999 4294901760
0.1045673 0.12443051 3.8559999 4294901760
0.095793217 0.10320285 3.881 4294901760
0.10209458 0.10320285 3.881 4294901760
0.095176153 0.13381298 3.8559999 4294901760
0.1045673 0.13381298 3.8559999 4294901760
0.095176153 0.14319548 3.8559999 4294901760
0.1045673 0.14319548 3.8559999 4294901760
0.095176153 0.15570545 3.8559999 4294901760
0.1045673 0.15570544 3.8559999 4294901760
0.10769768 0.16508794 3.8559999 4294901760
0.095793217 0.16615826 3.881 4294901760
0.10209458 0.16615826 3.881 4294901760
0.095793217 0.17560157 3.881 4294901760
0.10524525 0.17560157 3.881 4294901760
0.095793217 0.18504488 3.881 4294901760
0.10524525 0.18504488 3.881 4294901760
0.095793217 0.19134043 3.881 4294901760
0.10629549 0.19343895 3.8809998 4294901760
0.090068333 0.18623687 3.9059999 4294901760
0.092182316 0.19679706 3.9059999 4294901760
0.10275223 0.19890907 3.9059999 4294901760
0.10839593 0.20393151 3.881 4294901760
0.10839593 0.21337482 3.881 4294901760
0.093239307 0.20524517 3.9059999 4294901760
0.10275223 0.20524517 3.9059999 4294901760
0.093239307 0.21474931 3.9059999 4294901760
0.10275223 0.21474931 3.9059999 4294901760
0.096410282 0.22425343 3.9059999 4294901760
0.10592321 0.22425343 3.9059999 4294901760
0.090644807 0.22568876 3.931 4294901760
0.10839593 0.24800031 3.881 4294901760
0.096410282 0.23375759 3.9059999 4294901760
0.10592321 0.23375759 3.9059999 4294901760
0.094296299 0.2474858 3.9059999 4294901760
0.10486621 0.24537377 3.9059999 4294901760
0.090644807 0.23525372 3.931 4294901760
0.090644807 0.2448187 3.931 4294901760
0.10839593 0.25429586 3.881 4294901760
0.10839593 0.26373917 3.881 4294901760
0.10839593 0.27633023 3.881 4294901760
0.093239307 0.25593391 3.9059999 4294901760
0.10275223 0.25593391 3.9059999 4294901760
0.093239307 0.26543808 3.9059999 4294901760
0.10275223 0.26543808 3.9059999 4294901760
0.093239307 0.27494219 3.9059999 4294901760
0.10275223 0.27494219 3.9059999 4294901760
0.095793217 0.28577355 3.881 4294901760
0.10524525 0.28577355 3.881 4294901760
0.095793217 0.29521686 3.881 4294901760
0.10524525 0.29521686 3.881 4294901760
0.092182316 0.28339034 3.9059999 4294901760
0.10275223 0.28127831 3.9059999 4294901760
0.090068333 0.2939505 3.9059999 4294901760
0.092182316 0.30451065 3.9059999 4294901760
0.095793217 0.31410348 3.881 4294901760
0.10524526 0.31410348 3.881 4294901760
0.095793217 0.32669455 3.881 4294901760
0.10524525 0.32669455 3.881 4294901760
0.10592321 0.30662268 3.9059999 4294901760
0.095793217 0.33613789 3.881 4294901760
0.10524525 0.33613789 3.881 4294901760
0.093239307 0.34463924 3.9059999 4294901760
0.10592321 0.34463924 3.9059999 4294901760
0.093239307 0.35097533 3.9059999 4278255360
0.10592321 0.35097533 3.9059999 4278255360
0.093836077 0.3595984 3.931 4278255360
0.10660116 0.3595984 3.931 4278255360
0.11373098 0.36839563 3.957 4278255360
0.11373098 0.37481445 3.957 4278255360
0.095053494 0.37395284 3.9820001 4278255360
0.10475151 0.37395281 3.9820001 4278255360
0.11444953 0.3836419 3.9820001 4278255360
0.098952584 0.38624316 4.0089998 4278255360
0.10546177 0.38624316 4.0089998 4278255360
0.093042932 0.38874811 4.0349998 4278255360
0.11444953 0.39010125 3.9820001 4278255360
0.098952584 0.39274633 4.0089998 4278255360
0.10546177 0.39274633 4.0089998 4278255360
0.093042932 0.39529344 4.0349998 4278255360
0.11269713 0.40183878 4.0349998 4278255360
0.093665525 0.40452766 4.0619998 4278255360
0.10355839 0.40452766 4.0619998 4278255360
0.11345124 0.4144114 4.0619998 4278255360
0.10424674 0.41384956 4.0890002 4278255360
0.10424674 0.42048252 4.0890002 4278255360
0.094933778 0.41668344 4.1170001 4278255360
0.094933778 0.42336181 4.1170001 4278255360
0.10496059 0.43004018 4.1170001 4278255360
0.11498739 0.43337935 4.1170001 4278255360
0.11498739 0.44339687 4.1170001 4278255360
0.095579423 0.43296486 4.145 4278255360
0.10567443 0.43968868 4.145 4278255360
0.10567443 0.44641247 4.145 4278255360
0.10567443 0.45313624 4.145 4278255360
0.11576942 0.45313624 4.145 4278255360
0.096225075 0.44604343 4.1729999 4278255360
0.096225075 0.4561972 4.1729999 4278255360
0.099594332 0.46729231 4.0349998 4278255360
0.10614574 0.46729231 4.0349998 4278255360
0.11269713 0.46729231 4.0349998 4278255360
0.11345124 0.45724085 4.0619998 4278255360
0.11345124 0.46383002 4.0619998 4278255360
0.093665525 0.4704192 4.0619998 4278255360
0.094288133 0.46359664 4.0890002 4278255360
0.10424674 0.46359664 4.0890002 4278255360
0.10496059 0.45675364 4.1170001 4278255360
0.11498739 0.45675364 4.1170001 4278255360
0.095579423 0.45986006 4.145 4278255360
0.093239307 0.47769725 3.9059999 4278255360
0.10592321 0.47769725 3.9059999 4278255360
0.094456717 0.47751567 3.957 4278255360
0.10409385 0.47751567 3.957 4278255360
0.1105186 0.47751567 3.957 4278255360
0.098286159 0.46761379 3.9820001 4278255360
0.10475151 0.46761379 3.9820001 4278255360
0.11444953 0.46761379 3.9820001 4278255360
0.098286159 0.47407317 3.9820001 4278255360
0.10475151 0.47407317 3.9820001 4278255360
0.11444953 0.47407317 3.9820001 4278255360
0.092443407 0.47403604 4.0089998 4278255360
0.095176153 0.4966023 3.8559999 4278255360
0.1045673 0.4966023 3.8559999 4278255360
0.095793217 0.48723087 3.881 4278255360
0.10524525 0.48723087 3.881 4278255360
0.095793217 0.49352643 3.881 4278255360
0.10524525 0.49352643 3.881 4278255360
0.093239307 0.48403335 3.9059999 4278255360
0.10592321 0.48403335 3.9059999 4278255360
0.088361971 0.49972749 3.832 4278255360
0.094583772 0.49972749 3.832 4278255360
0.10391647 0.49972749 3.832 4278255360
0.088361971 0.50594354 3.832 4278255360
0.094583772 0.50594354 3.832 4278255360
0.10391647 0.50594354 3.832 4278255360
0.088361971 0.51215959 3.832 4278255360
0.094583772 0.51215959 3.832 4278255360
0.10391647 0.51215959 3.832 4278255360
0.095176153 0.52474976 3.8559999 4278255360
0.1045673 0.52474976 3.8559999 4278255360
0.094583772 0.54323983 3.832 4278255360
0.10391647 0.54634786 3.832 4278255360
0.095176153 0.53413218 3.8559999 4278255360
0.1045673 0.53413218 3.8559999 4278255360
0.095176153 0.54038721 3.8559999 4278255360
0.1045673 0.54038721 3.8559999 4278255360
0.096496433 0.56420612 3.7850001 4278255360
0.10571467 0.56420612 3.7850001 4278255360
0.093991391 0.54601467 3.8080001 4278255360
0.093991391 0.55528033 3.8080001 4278255360
0.10326564 0.55836892 3.8080001 4278255360
0.10391647 0.55567193 3.832 4278255360
0.096496433 0.57648569 3.7850001 4278255360
0.10571467 0.57648575 3.7850001 4278255360
0.096496433 0.58569551 3.7850001 4278255360
0.10571467 0.58569551 3.7850001 4278255360
0.085664071 0.59896863 3.7149999 4278255360
0.095298193 0.59661335 3.7379999 4278255360
0.10440195 0.59661335 3.7379999 4278255360
0.095298193 0.60570872 3.7379999 4278255360
0.10440195 0.60570872 3.7379999 4278255360
0.095884562 0.58808255 3.7609999 4278255360
0.10504435 0.58808255 3.7609999 4278255360
0.095884562 0.59418344 3.7609999 4278255360
0.10504435 0.59418344 3.7609999 4278255360
0.085156776 0.61638868 3.6930001 4278255360
0.085664071 0.60499489 3.7149999 4278255360
0.085664071 0.61102116 3.7149999 4278255360
0.094711825 0.6140343 3.7149999 4278255360
0.10677549 0.6140343 3.7149999 4278255360
0.094711825 0.6230737 3.7149999 4278255360
0.10677549 0.6230737 3.7149999 4278255360
0.084142178 0.63568109 3.6489999 4278255360
0.093029186 0.63568109 3.6489999 4278255360
0.10487853 0.63568109 3.6489999 4278255360
0.084649481 0.63355881 3.671 4278255360
0.093590066 0.63355881 3.671 4278255360
0.10551085 0.63355881 3.671 4278255360
0.085156776 0.6253745 3.6930001 4278255360
0.094150946 0.6253745 3.6930001 4278255360
0.10614317 0.6253745 3.6930001 4278255360
0.085156776 0.63136506 3.6930001 4278255360
0.094150946 0.63136506 3.6930001 4278255360
0.10614317 0.63136506 3.6930001 4278255360
0.085552923 0.64470589 3.5840001 4278255360
0.094281621 0.64470589 3.5840001 4278255360
0.10301033 0.64470589 3.5840001 4278255360
0.083127588 0.63971168 3.605 4278255360
0.089523837 0.6436156 3.6270001 4278255360
0.095412791 0.6436156 3.6270001 4278255360
0.10424621 0.6436156 3.6270001 4278255360
0.084142178 0.64160031 3.6489999 4278255360
0.093029186 0.64160031 3.6489999 4278255360
0.10487853 0.64160031 3.6489999 4278255360
0.083118096 0.65459919 3.4820001 4278255360
0.094425142 0.65459913 3.4820001 4278255360
0.084072933 0.65354919 3.5220001 4278255360
0.095509864 0.65354919 3.5220001 4278255360
0.081674874 0.64576918 3.5420001 4278255360
0.081674874 0.65151477 3.5420001 4278255360
0.08794415 0.64959782 3.563 4278255360
0.096621707 0.64959782 3.563 4278255360
0.08794415 0.65537751 3.563 4278255360
0.096621707 0.65537751 3.563 4278255360
0.084488586 0.65738899 3.4230001 4278255360
0.092825182 0.65738899 3.4230001 4278255360
0.084488586 0.66294158 3.4230001 4278255360
0.092825182 0.66294158 3.4230001 4278255360
0.085451201 0.65926301 3.4619999 4278255360
0.093882777 0.65926301 3.4619999 4278255360
0.084412068 0.66541934 3.3110001 4278255360
0.095163837 0.66541934 3.3110001 4278255360
0.085355364 0.65927798 3.348 4278255360
0.096227273 0.65927798 3.348 4278255360
0.085355364 0.66470891 3.348 4278255360
0.096227273 0.66470891 3.348 4278255360
0.086298659 0.66107297 3.385 4278255360
0.094542705 0.66107297 3.385 4278255360
0.075126119 0.66798013 3.2579999 4278255360
0.083060861 0.66798013 3.2579999 4278255360
0.093640521 0.66798013 3.2579999 4278255360
0.075126119 0.6732651 3.2579999 4278255360
0.083060861 0.6732651 3.2579999 4278255360
0.093640521 0.6732651 3.2579999 4278255360
0.083519764 0.6663565 3.276 4278255360
0.094675221 0.67001784 3.2939999 4278255360
0.076147825 0.67991149 3.1900001 4278255360
0.086506665 0.67991149 3.1900001 4278255360
0.073950112 0.67573154 3.207 4278255360
0.076959431 0.67408371 3.224 4278255360
0.084811367 0.67669863 3.224 4278255360
0.092663303 0.67669863 3.224 4278255360
0.079576738 0.6819284 3.224 4278255360
0.084811367 0.6819284 3.224 4278255360
0.092663303 0.6819284 3.224 4278255360
0.079996347 0.67500943 3.2409999 4278255360
0.085258566 0.67500943 3.2409999 4278255360
0.093151912 0.67500943 3.2409999 4278255360
0.07536009 0.68824124 3.1570001 4278255360
0.085611761 0.68824124 3.1570001 4278255360
0.076214395 0.69506937 3.1570003 4278255360
0.084757455 0.69506937 3.1570003 4278255360
0.075742021 0.68658227 3.1730001 4278255360
0.08604566 0.68658227 3.1730001 4278255360
0.076147825 0.68508619 3.1900001 4278255360
0.086506665 0.68508619 3.1900001 4278255360
0.084310099 0.70551491 3.109 4278255360
0.072059281 0.6964727 3.125 4278255360
0.084743991 0.6964727 3.125 4278255360
0.073750578 0.70492142 3.125 4278255360
0.084743991 0.7015419 3.125 4278255360
0.072428226 0.69494349 3.141 4278255360
0.087727815 0.69494349 3.141 4278255360
0.077528089 0.70258617 3.141 4278255360
0.070952445 0.71322721 3.0769999 4278255360
0.07634332 0.71693593 3.0929999 4278255360
0.083876215 0.71693593 3.0929999 4278255360
0.074214287 0.70803648 3.109 4278255360
0.074214287 0.71307975 3.109 4278255360
0.084310099 0.71307975 3.109 4278255360
0.076891214 0.72110361 3.016 4278255360
0.086685032 0.72110361 3.016 4278255360
0.069891736 0.71731484 3.0309999 4278255360
0.07727363 0.71731484 3.0309999 4278255360
0.087116145 0.71731484 3.0309999 4278255360
0.073092364 0.71720082 3.062 4278255360
0.083035551 0.71720082 3.062 4278255360
0.068208426 0.72403026 2.9579999 4278255360
0.075412534 0.72403026 2.9579999 4278255360
0.085018009 0.72403026 2.9579999 4278255360
0.068877138 0.71901524 2.987 4278255360
0.076151878 0.71901524 2.987 4278255360
0.08585152 0.71901524 2.987 4278255360
0.068877138 0.72386062 2.987 4278255360
0.076151878 0.72386062 2.987 4278255360
0.08585152 0.72386062 2.987 4278255360
0.072582647 0.71764284 2.8469999 4278255360
0.07990744 0.72117192 2.8610001 4278255360
0.070937827 0.71745569 2.8740001 4278255360
0.07597246 0.71860826 2.888 4278255360
0.083006084 0.71860826 2.888 4278255360
0.07597246 0.72329301 2.888 4278255360
0.083006084 0.72329301 2.888 4278255360
0.07194981 0.72059798 2.915 4278255360
0.077051014 0.72405881 2.9289999 4278255360
0.084184498 0.72405881 2.9289999 4278255360
0.064749591 0.72375458 2.8080003 4278255360
0.076147556 0.72375464 2.8080001 4278255360
0.06504935 0.71566516 2.8210001 4278255360
0.076500103 0.71566516 2.8210001 4278255360
0.06504935 0.72024125 2.8210001 4278255360
0.076500103 0.72024119 2.8210001 4278255360
0.065525323 0.72755402 2.7449999 4278255360
0.072210662 0.72755402 2.7449999 4278255360
0.077002726 0.73073459 2.757 4278255360
0.066122085 0.72744018 2.77 4278255360
0.075117067 0.72744018 2.77 4278255360
0.066408545 0.72382236 2.7820001 4278255360
0.073183998 0.72382236 2.7820001 4278255360
0.078064062 0.72720474 2.7950001 4278255360
0.064928547 0.73637074 2.72 4278255360
0.073025115 0.73710608 2.72 4278255360
0.065215006 0.72854018 2.7320001 4278255360
0.074086592 0.72854018 2.7320001 4278255360
0.065215006 0.73297185 2.7320001 4278255360
0.074825883 0.73444909 2.7320001 4278255360
0.064642102 0.74630028 2.7079999 4278255360
0.071237341 0.74630028 2.7079999 4278255360
0.064642102 0.75288945 2.7079999 4278255360
0.073435754 0.75288945 2.7079999 4278255360
0.064928547 0.74298906 2.72 4278255360
0.074497215 0.74445981 2.72 4278255360
0.075969324 0.75181353 2.72 4278255360
0.063520178 0.75708842 2.661 4278255360
0.074628688 0.76238519 2.6719999 4278255360
0.064069204 0.75492454 2.684 4278255360
0.074963845 0.75927836 2.684 4278255360
0.075299002 0.75611311 2.6960001 4278255360
0.065112732 0.76766139 2.638 4278255360
0.075820655 0.76766145 2.638 4278255360
0.063233726 0.76441687 2.6489999 4278255360
0.063520178 0.76140493 2.661 4278255360
0.074321456 0.7657215 2.661 4278255360
0.074321456 0.77003795 2.661 4278255360
0.065826625 0.76811892 2.582 4278255360
0.074211121 0.76811892 2.582 4278255360
0.066107064 0.76718503 2.5929999 4278255360
0.072422221 0.76718503 2.5929999 4278255360
0.064545028 0.76733136 2.615 4278255360
0.073036686 0.76733136 2.615 4278255360
0.064730369 0.76768273 2.539 4278255360
0.070914015 0.76768273 2.539 4278255360
0.064730369 0.77180135 2.539 4278255360
0.070914015 0.77180135 2.539 4278255360
0.065265745 0.76987946 2.5599999 4278255360
0.073578805 0.76987946 2.5599999 4278255360
0.059538256 0.77230728 2.582 4278255360
0.065826625 0.77230728 2.582 4278255360
0.074211121 0.77230728 2.582 4278255360
0.065686725 0.77726144 2.497 4278255360
0.072055489 0.77427417 2.507 4278255360
0.064194985 0.77767146 2.5179999 4278255360
0.064449936 0.77460879 2.5280001 4278255360
0.064634472 0.77676719 2.457 4278255360
0.057117067 0.77706301 2.477 4278255360
0.065160595 0.77706307 2.477 4278255360
0.066724524 0.77464581 2.3889999 4278255360
0.055318464 0.77788836 2.3989999 4278255360
0.063108705 0.77788842 2.3989999 4278255360
0.059682559 0.77816576 2.418 4278255360
0.065571509 0.77816576 2.418 4278255360
0.064108342 0.77637404 2.437 4278255360
0.064108342 0.78032714 2.437 4278255360
0.057831358 0.7692318 2.3429999 4278255360
0.065439753 0.7692318 2.3429999 4278255360
0.057831358 0.77303249 2.3429999 4278255360
0.065439753 0.77303249 2.3429999 4278255360
0.067887947 0.77163821 2.362 4278255360
0.056597646 0.77457845 2.3710001 4278255360
0.062372129 0.77457845 2.3710001 4278255360
0.05612826 0.76686651 2.2739999 4278255360
0.065358669 0.76686656 2.2739999 4278255360
0.05487895 0.76970339 2.299 4278255360
0.06421084 0.76970339 2.299 4278255360
0.066594556 0.76821274 2.3169999 4278255360
0.066594556 0.77197123 2.3169999 4278255360
0.055523455 0.77308327 2.326 4278255360
0.061188348 0.77308333 2.326 4278255360
0.055289056 0.76630145 2.24 4278255360
0.055708658 0.76662534 2.257 4278255360
0.064870059 0.76662534 2.257 4278255360
0.05443339 0.77411318 2.2053335 4278255360
0.054696675 0.76707774 2.2160001 4278255360
0.054696675 0.7706725 2.2160001 4278255360
0.054894131 0.76623935 2.224 4278255360
0.053906828 0.77548599 2.184 4278255360
0.055271931 0.78738886 2.168 4278255360
0.060552016 0.78738886 2.168 4278255360
0.053709369 0.78323478 2.1760004 4278255360
0.06342525 0.78588223 2.1760001 4278255360
0.053906828 0.78080016 2.184 4278255360
0.054685559 0.78773433 2.145 4278255360
0.054685559 0.79121381 2.145 4278255360
0.049645964 0.78717983 2.1530001 4278255360
0.055093467 0.79010469 2.161 4278255360
0.055664033 0.79596281 2.1159999 4278255360
0.055848178 0.78998637 2.1229999 4278255360
0.055848178 0.79343015 2.1229999 4278255360
0.056242775 0.79209989 2.138 4278255360
0.055361513 0.79846168 2.1045001 4278255360
0.055269446 0.80224878 2.1010001 4278255360
0.053206883 0.80536652 2.0869999 4278255360
0.054901153 0.81044459 2.0869999 4278255360
0.056445263 0.8050108 2.0940001 4278255360
0.25624007 -0.73000675 7.8119998 4294901760
0.26892394 -0.73000675 7.8119998 4294901760
0.25624007 -0.71733457 7.8119998 4294901760
0.26892394 -0.71733457 7.8119998 4294901760
0.23385717 -0.73944491 7.9130001 4294901760
0.24670504 -0.73944491 7.9130001 4294901760
0.23385717 -0.72660893 7.9130001 4294901760
0.24670504 -0.72660893 7.9130001 4294901760
0.20938683 -0.60460645 7.085 4294901760
0.22089034 -0.60460645 7.085 4294901760
0.23239385 -0.60460645 7.085 4294901760
0.24389736 -0.60460645 7.085 4294901760
0.23793721 -0.6307953 7.2540002 4294901760
0.24971512 -0.6307953 7.2540002 4294901760
0.21695255 -0.63836074 7.3410001 4294901760
0.2288717 -0.63836074 7.3410001 4294901760
0.24672781 -0.67850369 7.5219998 4294901760
0.25894088 -0.67850369 7.5219998 4294901760
0.24672781 -0.66630191 7.5219998 4294901760
0.25894088 -0.66630191 7.5219998 4294901760
0.22507977 -0.68698269 7.6160002 4294901760
0.23744543 -0.68698269 7.6160002 4294901760
0.22507977 -0.67462844 7.6160002 4294901760
0.23744543 -0.67462844 7.6160002 4294901760
0.21963434 -0.53882509 6.6960001 4294901760
0.23050626 -0.53882509 6.6960001 4294901760
0.21963434 -0.52796322 6.6960001 4294901760
0.23050626 -0.52796322 6.6960001 4294901760
0.20007746 -0.54477984 6.77 4294901760
0.21106954 -0.54477984 6.77 4294901760
0.20007746 -0.53379798 6.77 4294901760
0.21106954 -0.53379798 6.77 4294901760
0.21587083 -0.5684039 6.9239998 4294901760
0.22711292 -0.5684039 6.9239998 4294901760
0.23835501 -0.5684039 6.9239998 4294901760
0.20699301 -0.57497126 7.0040002 4294901760
0.20938683 -0.5931136 7.085 4294901760
0.22089034 -0.5931136 7.085 4294901760
0.23239385 -0.5931136 7.085 4294901760
0.24389736 -0.5931136 7.085 4294901760
0.18565534 -0.45455906 6.2820001 4294901760
0.19585507 -0.45455906 6.2820001 4294901760
0.20605479 -0.45455906 6.2820001 4294901760
0.2162545 -0.45455906 6.2820001 4294901760
0.19156605 -0.49006036 6.4819999 4294901760
0.2020905 -0.49006036 6.4819999 4294901760
0.21261497 -0.49006036 6.4819999 4294901760
0.22313941 -0.49006036 6.4819999 4294901760
0.19156605 -0.47954562 6.4819999 4294901760
0.2020905 -0.47954562 6.4819999 4294901760
0.21261497 -0.47954562 6.4819999 4294901760
0.22313941 -0.47954562 6.4819999 4294901760
0.21491101 -0.50598085 6.552 4294901760
0.22554913 -0.50598085 6.552 4294901760
0.1957331 -0.51146394 6.6230001 4294901760
0.20648649 -0.51146394 6.6230001 4294901760
0.17483875 -0.39928588 5.9159999 4294901760
0.18444422 -0.39928588 5.9159999 4294901760
0.19404969 -0.39928588 5.9159999 4294901760
0.20365517 -0.39928588 5.9159999 4294901760
0.17483875 -0.38968927 5.9159999 4294901760
0.18444422 -0.38968927 5.9159999 4294901760
0.19404969 -0.38968927 5.9159999 4294901760
0.20365517 -0.38968927 5.9159999 4294901760
0.18501616 -0.42111576 6.0929999 4294901760
0.19985543 -0.42111576 6.0929999 4294901760
